6.02 1.73 -2.32 0
6.05 1.62 -2.32 0
6.07 1.51 -2.32 0
6.08 1.40 -2.31 0
6.11 1.30 -2.32 0
6.13 1.19 -2.31 0
6.14 1.08 -2.31 0
6.15 0.97 -2.31 0
6.18 0.87 -2.31 0
6.20 0.76 -2.31 0
6.18 0.65 -2.30 0
6.19 0.54 -2.30 0
6.20 0.43 -2.30 0
6.21 0.33 -2.31 0
6.20 0.22 -2.30 0
6.22 0.11 -2.30 0
6.69 -0.00 -2.31 0
6.68 -0.12 -2.31 0
6.70 -0.23 -2.31 0
6.69 -0.35 -2.31 0
6.67 -0.47 -2.31 0
6.66 -0.58 -2.31 0
6.65 -0.70 -2.31 0
6.67 -0.82 -2.32 0
6.66 -0.94 -2.32 0
6.62 -1.05 -2.31 0
6.60 -1.16 -2.31 0
6.59 -1.28 -2.32 0
6.58 -1.40 -2.32 0
6.57 -1.52 -2.33 0
6.52 -1.63 -2.32 0
6.51 -1.74 -2.33 0
6.47 -1.86 -2.32 0
6.46 -1.97 -2.33 0
6.42 -2.08 -2.33 0
6.38 -2.20 -2.33 0
6.33 -2.31 -2.33 0
6.29 -2.42 -2.33 0
6.28 -2.54 -2.34 0
6.23 -2.65 -2.34 0
6.17 -2.75 -2.33 0
6.12 -2.86 -2.33 0
6.08 -2.97 -2.34 0
6.04 -3.08 -2.34 0
5.99 -3.19 -2.34 0
5.92 -3.28 -2.34 0
5.88 -3.39 -2.34 0
5.81 -3.49 -2.34 0
5.76 -3.60 -2.34 0
5.69 -3.70 -2.34 0
5.62 -3.79 -2.34 0
5.55 -3.89 -2.34 0
5.48 -3.98 -2.34 0
5.43 -4.09 -2.35 0
5.36 -4.19 -2.35 0
5.27 -4.26 -2.34 0
5.19 -4.36 -2.34 0
5.12 -4.45 -2.34 0
5.05 -4.55 -2.35 0
4.98 -4.64 -2.35 0
4.88 -4.72 -2.34 0
4.81 -4.81 -2.35 0
4.72 -4.89 -2.34 0
4.64 -4.98 -2.35 0
4.55 -5.05 -2.35 0
4.46 -5.13 -2.35 0
4.36 -5.20 -2.34 0
4.27 -5.27 -2.34 0
4.20 -5.37 -2.35 0
4.10 -5.44 -2.35 0
3.99 -5.49 -2.34 0
3.90 -5.56 -2.34 0
3.80 -5.64 -2.35 0
3.71 -5.71 -2.35 0
3.61 -5.78 -2.35 0
3.50 -5.83 -2.35 0
3.41 -5.90 -2.35 0
3.30 -5.95 -2.35 0
3.20 -6.02 -2.35 0
3.09 -6.07 -2.35 0
2.98 -6.11 -2.35 0
2.87 -6.16 -2.35 0
2.76 -6.21 -2.34 0
2.65 -6.25 -2.34 0
2.53 -6.27 -2.34 0
2.41 -6.28 -2.32 0
2.29 -6.30 -2.31 0
2.18 -6.32 -2.31 0
2.06 -6.34 -2.30 0
1.94 -6.36 -2.29 0
1.82 -6.36 -2.29 0
1.71 -6.39 -2.28 0
1.60 -6.40 -2.28 0
1.49 -6.43 -2.28 0
1.37 -6.45 -2.28 0
1.26 -6.46 -2.27 0
1.14 -6.48 -2.27 0
1.03 -6.50 -2.27 0
0.92 -6.54 -2.28 0
0.80 -6.55 -2.28 0
0.69 -6.54 -2.27 0
0.57 -6.55 -2.27 0
0.46 -6.57 -2.27 0
0.34 -6.58 -2.27 0
0.23 -6.59 -2.28 0
0.11 -6.58 -2.27 0
0.00 -6.59 -2.28 0
-0.11 -6.58 -2.27 0
-0.23 -6.59 -2.28 0
-0.34 -6.58 -2.27 0
-0.46 -6.56 -2.27 0
-0.57 -6.55 -2.27 0
-0.69 -6.53 -2.27 0
-0.80 -6.54 -2.27 0
-0.92 -6.53 -2.27 0
-1.03 -6.48 -2.27 0
-1.14 -6.47 -2.27 0
-1.25 -6.45 -2.27 0
-1.37 -6.43 -2.27 0
-1.48 -6.42 -2.27 0
-1.59 -6.38 -2.27 0
-1.71 -6.38 -2.28 0
-1.82 -6.36 -2.28 0
-1.94 -6.35 -2.29 0
-2.06 -6.33 -2.30 0
-2.17 -6.31 -2.30 0
-2.29 -6.29 -2.31 0
-2.41 -6.27 -2.32 0
-2.53 -6.26 -2.33 0
-2.65 -6.24 -2.34 0
-2.75 -6.17 -2.33 0
-2.86 -6.12 -2.33 0
-2.96 -6.08 -2.33 0
-3.07 -6.03 -2.34 0
-3.18 -5.98 -2.34 0
-3.28 -5.91 -2.33 0
-3.38 -5.86 -2.34 0
-3.48 -5.79 -2.33 0
-3.59 -5.74 -2.34 0
-3.68 -5.67 -2.33 0
-3.77 -5.60 -2.33 0
-3.87 -5.52 -2.33 0
-3.96 -5.45 -2.33 0
-4.07 -5.40 -2.33 0
-4.16 -5.33 -2.33 0
-4.24 -5.23 -2.32 0
-4.33 -5.16 -2.32 0
-4.42 -5.09 -2.33 0
-4.51 -5.01 -2.33 0
-4.61 -4.94 -2.33 0
-4.68 -4.85 -2.32 0
-4.77 -4.77 -2.33 0
-4.84 -4.68 -2.32 0
-4.94 -4.60 -2.33 0
-5.01 -4.51 -2.33 0
-5.08 -4.41 -2.32 0
-5.15 -4.32 -2.32 0
-5.22 -4.23 -2.32 0
-5.31 -4.15 -2.33 0
-5.38 -4.06 -2.33 0
-5.43 -3.95 -2.32 0
-5.50 -3.85 -2.32 0
-5.57 -3.76 -2.32 0
-5.64 -3.66 -2.32 0
-5.52 4.01 -2.35 0
-5.47 4.12 -2.36 0
-5.40 4.22 -2.36 0
-5.31 4.30 -2.36 0
-5.24 4.39 -2.36 0
-5.17 4.49 -2.36 3
-5.10 4.59 -2.37 6
-5.02 4.69 -2.37 4
-4.93 4.76 -2.37 1
-4.86 4.86 -2.37 0
-4.77 4.94 -2.37 0
-4.70 5.04 -2.38 0
-4.60 5.11 -2.37 0
-4.51 5.19 -2.37 0
-4.42 5.26 -2.37 0
-4.32 5.34 -2.37 0
-4.25 5.44 -2.38 0
-4.16 5.51 -2.38 0
-4.04 5.57 -2.37 0
-3.95 5.64 -2.38 0
-3.85 5.71 -2.38 0
-3.76 5.79 -2.38 0
-3.66 5.86 -2.39 0
-3.55 5.91 -2.38 0
-3.46 5.99 -2.39 0
-3.35 6.03 -2.38 0
-3.25 6.11 -2.39 0
-3.14 6.16 -2.38 0
-3.03 6.21 -2.38 0
-2.92 6.25 -2.38 0
-2.80 6.30 -2.38 0
-2.71 6.37 -2.39 0
-2.59 6.42 -2.39 0
-2.47 6.44 -2.38 0
-2.36 6.49 -2.38 0
-2.25 6.53 -2.38 0
-2.14 6.58 -2.39 0
-2.03 6.63 -2.39 0
-1.90 6.64 -2.39 0
-1.79 6.69 -2.39 0
-1.67 6.71 -2.39 0
-1.56 6.75 -2.39 0
-1.44 6.77 -2.39 0
-1.32 6.79 -2.39 0
-1.20 6.80 -2.38 0
-1.08 6.82 -2.38 0
-0.97 6.87 -2.39 0
-0.85 6.89 -2.39 0
-0.72 6.87 -2.38 0
-0.60 6.89 -2.39 0
-0.48 6.90 -2.39 0
-0.36 6.92 -2.39 0
-0.24 6.93 -2.39 0
-0.12 6.92 -2.39 0
0.00 6.93 -2.39 0
0.12 6.92 -2.39 0
0.24 6.93 -2.39 0
0.36 6.91 -2.39 0
0.48 6.90 -2.39 0
0.60 6.88 -2.38 0
0.72 6.86 -2.38 0
0.84 6.88 -2.39 0
0.96 6.86 -2.39 0
1.08 6.81 -2.38 0
1.20 6.79 -2.38 0
1.32 6.77 -2.38 0
1.44 6.75 -2.38 0
1.55 6.73 -2.39 0
1.67 6.69 -2.38 0
1.79 6.67 -2.38 0
1.90 6.62 -2.38 0
2.02 6.60 -2.38 0
2.13 6.56 -2.38 0
2.24 6.51 -2.38 0
2.35 6.46 -2.37 0
2.46 6.41 -2.37 0
2.58 6.40 -2.38 0
2.69 6.35 -2.38 0
2.79 6.27 -2.37 0
2.90 6.23 -2.37 0
3.01 6.18 -2.37 0
3.12 6.13 -2.38 0
3.23 6.08 -2.38 0
3.33 6.01 -2.37 0
3.44 5.96 -2.38 0
3.54 5.89 -2.37 0
3.65 5.84 -2.38 0
3.74 5.76 -2.37 0
3.84 5.69 -2.37 0
3.93 5.61 -2.36 0
4.02 5.54 -2.36 0
4.14 5.49 -2.37 0
4.23 5.41 -2.37 0
4.30 5.31 -2.36 0
4.40 5.24 -2.36 0
4.49 5.16 -2.36 0
4.58 5.09 -2.36 0
4.67 5.01 -2.37 0
4.75 4.92 -2.36 0
4.84 4.84 -2.36 0
4.91 4.74 -2.36 3
5.00 4.67 -2.36 7
5.07 4.57 -2.36 16
5.14 4.47 -2.35 9
5.21 4.37 -2.35 1
5.28 4.28 -2.35 0
5.38 4.20 -2.35 0
5.45 4.10 -2.35 0
5.49 3.99 -2.34 0
5.56 3.89 -2.34 0
5.63 3.80 -2.34 0
5.70 3.70 -2.34 0
5.76 3.60 -2.35 0
5.81 3.49 -2.34 0
5.88 3.39 -2.34 0
5.92 3.28 -2.34 0
5.99 3.18 -2.34 0
6.03 3.07 -2.34 0
6.07 2.96 -2.33 0
6.12 2.85 -2.33 0
6.16 2.74 -2.33 30
6.23 2.64 -2.33 -127
6.27 2.53 -2.33 -45
6.28 2.41 -2.32 -50
6.32 2.30 -2.32 22
6.37 2.19 -2.32 1
6.41 2.08 -2.32 0
6.45 1.97 -2.33 0
6.46 1.85 -2.32 0
6.50 1.74 -2.32 0
6.51 1.62 -2.32 0
6.55 1.51 -2.32 0
6.57 1.40 -2.32 0
6.58 1.28 -2.31 0
6.59 1.16 -2.31 0
6.60 1.05 -2.31 0
6.64 0.93 -2.31 0
6.65 0.82 -2.31 0
6.64 0.70 -2.30 0
6.65 0.58 -2.30 0
6.66 0.47 -2.30 0
6.67 0.35 -2.31 0
6.68 0.23 -2.31 0
6.67 0.12 -2.30 0
7.22 -0.00 -2.31 0
7.20 -0.13 -2.31 0
7.19 -0.25 -2.30 0
7.21 -0.38 -2.31 0
7.20 -0.50 -2.31 0
7.19 -0.63 -2.31 0
7.18 -0.75 -2.31 0
7.17 -0.88 -2.31 0
7.15 -1.01 -2.31 0
7.14 -1.13 -2.31 0
7.13 -1.26 -2.32 0
7.12 -1.38 -2.32 0
7.10 -1.51 -2.32 0
7.06 -1.63 -2.32 0
7.04 -1.76 -2.32 0
7.03 -1.88 -2.33 0
6.98 -2.00 -2.33 0
6.94 -2.12 -2.32 0
6.93 -2.25 -2.33 0
6.88 -2.37 -2.33 0
6.84 -2.49 -2.33 0
6.80 -2.61 -2.33 0
6.75 -2.73 -2.33 0
6.71 -2.85 -2.33 0
6.66 -2.97 -2.33 0
6.61 -3.08 -2.34 0
6.57 -3.20 -2.34 0
6.52 -3.32 -2.34 0
6.45 -3.43 -2.34 0
6.40 -3.55 -2.34 0
6.35 -3.67 -2.35 0
6.27 -3.77 -2.34 0
6.20 -3.87 -2.34 0
6.15 -3.99 -2.35 0
6.07 -4.10 -2.35 0
6.00 -4.20 -2.34 0
5.92 -4.30 -2.34 0
5.85 -4.40 -2.34 0
5.77 -4.51 -2.34 0
5.69 -4.61 -2.34 0
5.61 -4.71 -2.35 0
5.54 -4.81 -2.35 0
5.46 -4.92 -2.35 0
5.36 -4.99 -2.34 0
5.28 -5.10 -2.35 0
5.20 -5.20 -2.35 0
5.10 -5.28 -2.35 0
5.00 -5.36 -2.35 0
4.92 -5.46 -2.35 0
4.82 -5.54 -2.35 0
4.72 -5.62 -2.35 0
4.62 -5.70 -2.35 0
4.52 -5.78 -2.35 0
4.41 -5.86 -2.35 0
4.31 -5.94 -2.35 0
4.21 -6.01 -2.35 0
4.11 -6.09 -2.35 0
4.01 -6.17 -2.36 0
3.89 -6.22 -2.35 0
3.76 -6.26 -2.34 0
3.63 -6.29 -2.33 0
3.50 -6.31 -2.31 0
3.37 -6.33 -2.30 0
3.25 -6.37 -2.29 0
3.12 -6.40 -2.28 0
3.01 -6.45 -2.28 0
2.89 -6.50 -2.28 0
2.78 -6.54 -2.27 0
2.66 -6.59 -2.28 0
2.55 -6.64 -2.28 0
2.43 -6.69 -2.28 0
2.32 -6.74 -2.28 0
2.21 -6.79 -2.28 0
2.08 -6.81 -2.28 0
1.97 -6.85 -2.28 0
1.85 -6.90 -2.29 0
1.73 -6.92 -2.28 0
1.60 -6.94 -2.28 0
1.49 -6.99 -2.29 0
1.36 -7.01 -2.29 0
1.24 -7.03 -2.28 0
1.12 -7.04 -2.28 0
0.99 -7.06 -2.28 0
0.87 -7.08 -2.28 0
0.75 -7.09 -2.28 0
0.62 -7.11 -2.28 0
0.50 -7.12 -2.29 0
0.37 -7.14 -2.29 0
0.25 -7.12 -2.28 0
0.12 -7.14 -2.28 0
0.00 -7.15 -2.29 0
-0.12 -7.13 -2.28 0
-0.25 -7.12 -2.28 0
-0.37 -7.13 -2.29 0
-0.50 -7.12 -2.28 0
-0.62 -7.10 -2.28 0
-0.74 -7.08 -2.28 0
-0.87 -7.06 -2.28 0
-0.99 -7.05 -2.28 0
-1.11 -7.03 -2.28 0
-1.24 -7.01 -2.28 0
-1.36 -6.99 -2.28 0
-1.48 -6.97 -2.28 0
-1.60 -6.92 -2.27 0
-1.72 -6.90 -2.28 0
-1.84 -6.88 -2.28 0
-1.96 -6.83 -2.27 0
-2.07 -6.78 -2.27 0
-2.20 -6.76 -2.27 0
-2.31 -6.71 -2.27 0
-2.42 -6.66 -2.27 0
-2.54 -6.61 -2.27 0
-2.65 -6.56 -2.26 0
-2.76 -6.51 -2.26 0
-2.88 -6.46 -2.26 0
-2.99 -6.41 -2.27 0
-3.11 -6.38 -2.27 0
-3.24 -6.35 -2.28 0
-3.36 -6.32 -2.29 0
-3.49 -6.30 -2.31 0
-3.63 -6.28 -2.32 0
-3.75 -6.25 -2.33 0
-3.86 -6.17 -2.33 0
-3.97 -6.12 -2.34 0
-4.07 -6.04 -2.33 0
-4.18 -5.96 -2.33 0
-4.28 -5.88 -2.33 0
-4.38 -5.81 -2.33 0
-4.48 -5.73 -2.33 0
-4.57 -5.65 -2.33 0
-4.67 -5.57 -2.33 0
-4.77 -5.49 -2.33 0
-4.87 -5.41 -2.33 0
-4.95 -5.31 -2.32 0
-5.05 -5.23 -2.33 0
-5.15 -5.15 -2.33 0
-5.23 -5.05 -2.33 0
-5.30 -4.95 -2.32 0
-5.40 -4.87 -2.33 0
-5.48 -4.76 -2.32 0
-5.56 -4.66 -2.32 0
-5.63 -4.56 -2.32 0
-5.41 5.04 -2.37 0
-5.33 5.15 -2.37 0
-5.26 5.26 -2.38 0
-5.16 5.34 -2.38 0
-5.06 5.42 -2.37 0
-4.98 5.53 -2.38 0
-4.88 5.61 -2.38 0
-4.78 5.70 -2.38 0
-4.68 5.78 -2.38 0
-4.58 5.86 -2.38 0
-4.48 5.94 -2.38 0
-4.37 6.02 -2.38 0
-4.27 6.10 -2.38 0
-4.17 6.18 -2.39 0
-4.07 6.26 -2.39 0
-3.95 6.31 -2.38 0
-3.84 6.39 -2.39 0
-3.74 6.47 -2.39 0
-3.62 6.53 -2.39 0
-3.50 6.58 -2.39 0
-3.39 6.66 -2.39 0
-3.27 6.71 -2.39 0
-3.15 6.77 -2.39 0
-3.04 6.82 -2.39 0
-2.92 6.87 -2.39 0
-2.80 6.93 -2.39 0
-2.68 6.98 -2.39 0
-2.56 7.04 -2.40 0
-2.44 7.09 -2.40 0
-2.32 7.14 -2.40 0
-2.19 7.16 -2.40 0
-2.07 7.21 -2.40 0
-1.95 7.27 -2.41 0
-1.82 7.29 -2.40 0
-1.69 7.31 -2.40 0
-1.56 7.36 -2.41 0
-1.43 7.38 -2.41 0
-1.30 7.40 -2.41 0
-1.18 7.42 -2.40 0
-1.05 7.44 -2.40 0
-0.92 7.46 -2.40 0
-0.79 7.47 -2.41 0
-0.66 7.49 -2.41 0
-0.53 7.51 -2.41 0
-0.39 7.53 -2.41 0
-0.26 7.50 -2.40 0
-0.13 7.52 -2.41 0
0.00 7.54 -2.41 0
0.13 7.52 -2.41 0
0.26 7.50 -2.40 0
0.39 7.52 -2.41 0
0.52 7.50 -2.41 0
0.65 7.48 -2.40 0
0.78 7.46 -2.40 0
0.91 7.44 -2.40 0
1.04 7.42 -2.40 0
1.17 7.40 -2.40 0
1.30 7.38 -2.40 0
1.43 7.36 -2.40 0
1.56 7.34 -2.40 0
1.68 7.28 -2.39 0
1.81 7.26 -2.40 0
1.94 7.24 -2.40 0
2.06 7.18 -2.39 0
2.18 7.13 -2.39 0
2.31 7.12 -2.40 0
2.43 7.06 -2.39 0
2.55 7.01 -2.39 0
2.67 6.96 -2.39 0
2.79 6.91 -2.38 0
2.91 6.86 -2.38 0
3.03 6.80 -2.38 0
3.15 6.75 -2.38 0
3.27 6.70 -2.39 0
3.39 6.65 -2.39 0
3.49 6.56 -2.38 0
3.61 6.51 -2.38 0
3.73 6.46 -2.39 0
3.83 6.38 -2.38 0
3.93 6.30 -2.38 0
4.06 6.24 -2.38 0
4.16 6.16 -2.38 0
4.26 6.08 -2.38 0
4.36 6.00 -2.37 0
4.46 5.92 -2.37 0
4.56 5.84 -2.37 0
4.66 5.76 -2.37 0
4.76 5.68 -2.37 0
4.86 5.59 -2.37 0
4.96 5.51 -2.37 0
5.04 5.40 -2.37 0
5.14 5.32 -2.37 0
5.24 5.24 -2.37 0
5.32 5.13 -2.37 0
5.39 5.03 -2.36 0
5.50 4.95 -2.37 0
5.57 4.84 -2.36 0
5.65 4.74 -2.36 2
5.72 4.63 -2.36 5
5.80 4.53 -2.35 6
5.87 4.42 -2.35 3
5.95 4.32 -2.35 0
6.02 4.21 -2.35 0
6.09 4.11 -2.35 0
6.17 4.00 -2.35 0
6.21 3.88 -2.34 0
6.28 3.78 -2.35 0
6.36 3.67 -2.35 0
6.40 3.55 -2.34 0
6.45 3.43 -2.34 0
6.52 3.32 -2.34 0
6.57 3.20 -2.34 0
6.61 3.08 -2.33 0
6.65 2.96 -2.33 1
6.70 2.84 -2.33 1
6.74 2.72 -2.33 57
6.79 2.60 -2.33 -84
6.83 2.49 -2.33 -99
6.87 2.37 -2.33 94
6.92 2.25 -2.33 8
6.93 2.12 -2.32 0
6.97 2.00 -2.32 0
7.02 1.88 -2.32 0
7.03 1.75 -2.32 0
7.04 1.63 -2.31 0
7.09 1.51 -2.32 0
7.10 1.38 -2.32 0
7.11 1.25 -2.31 0
7.13 1.13 -2.31 0
7.14 1.00 -2.31 0
7.15 0.88 -2.31 0
7.16 0.75 -2.31 0
7.18 0.63 -2.31 0
7.19 0.50 -2.31 0
7.20 0.38 -2.31 0
7.18 0.25 -2.30 0
7.20 0.13 -2.30 0
7.79 -0.00 -2.30 0
7.82 -0.14 -2.31 0
7.81 -0.27 -2.31 0
7.80 -0.41 -2.31 0
7.78 -0.54 -2.30 0
7.81 -0.68 -2.32 0
7.80 -0.82 -2.32 0
7.78 -0.96 -2.32 0
7.77 -1.09 -2.32 0
7.76 -1.23 -2.32 0
7.74 -1.37 -2.32 0
7.69 -1.50 -2.31 0
7.68 -1.63 -2.32 0
7.66 -1.77 -2.32 0
7.65 -1.91 -2.33 0
7.60 -2.04 -2.32 0
7.59 -2.18 -2.33 0
7.54 -2.30 -2.33 0
7.49 -2.43 -2.33 0
7.44 -2.56 -2.33 0
7.43 -2.71 -2.34 0
7.39 -2.84 -2.34 0
7.34 -2.96 -2.34 0
7.29 -3.09 -2.34 0
7.24 -3.22 -2.34 0
7.19 -3.35 -2.34 0
7.11 -3.47 -2.34 0
7.06 -3.59 -2.34 0
7.01 -3.72 -2.34 0
6.96 -3.86 -2.35 0
6.87 -3.97 -2.34 0
6.82 -4.10 -2.35 0
6.74 -4.21 -2.35 0
6.66 -4.32 -2.34 0
6.57 -4.43 -2.34 0
6.52 -4.57 -2.35 0
6.44 -4.68 -2.35 0
6.36 -4.79 -2.35 0
6.27 -4.90 -2.35 0
6.19 -5.01 -2.35 0
6.11 -5.12 -2.35 0
5.99 -5.21 -2.35 0
5.91 -5.32 -2.35 0
5.82 -5.43 -2.35 0
5.74 -5.54 -2.36 0
5.62 -5.62 -2.35 0
5.54 -5.74 -2.36 0
5.43 -5.83 -2.35 0
5.32 -5.91 -2.35 0
5.22 -6.00 -2.35 0
5.13 -6.12 -2.36 0
5.02 -6.20 -2.36 0
4.89 -6.25 -2.34 0
4.74 -6.29 -2.33 0
4.60 -6.33 -2.31 0
4.46 -6.36 -2.30 0
4.31 -6.40 -2.28 0
4.20 -6.47 -2.28 0
4.09 -6.55 -2.28 0
3.99 -6.63 -2.29 0
3.86 -6.69 -2.28 0
3.76 -6.78 -2.29 0
3.63 -6.83 -2.29 0
3.51 -6.89 -2.28 0
3.39 -6.94 -2.28 0
3.28 -7.04 -2.29 0
3.16 -7.09 -2.29 0
3.03 -7.15 -2.29 0
2.91 -7.20 -2.29 0
2.78 -7.25 -2.30 0
2.66 -7.31 -2.30 0
2.52 -7.32 -2.29 0
2.40 -7.38 -2.29 0
2.27 -7.43 -2.30 0
2.15 -7.49 -2.30 0
2.01 -7.50 -2.29 0
1.88 -7.56 -2.30 0
1.75 -7.58 -2.30 0
1.61 -7.60 -2.29 0
1.48 -7.62 -2.29 0
1.35 -7.68 -2.30 0
1.22 -7.69 -2.30 0
1.08 -7.71 -2.30 0
0.95 -7.73 -2.30 0
0.81 -7.75 -2.30 0
0.68 -7.77 -2.30 0
0.54 -7.74 -2.29 0
0.41 -7.76 -2.30 0
0.27 -7.78 -2.30 0
0.14 -7.79 -2.30 0
0.00 -7.77 -2.29 0
-0.14 -7.79 -2.30 0
-0.27 -7.77 -2.30 0
-0.41 -7.75 -2.29 0
-0.54 -7.73 -2.29 0
-0.68 -7.76 -2.30 0
-0.81 -7.74 -2.30 0
-0.95 -7.72 -2.30 0
-1.08 -7.70 -2.30 0
-1.22 -7.68 -2.30 0
-1.35 -7.66 -2.30 0
-1.48 -7.59 -2.29 0
-1.61 -7.57 -2.29 0
-1.74 -7.55 -2.29 0
-1.88 -7.53 -2.29 0
-2.00 -7.47 -2.28 0
-2.14 -7.45 -2.29 0
-2.26 -7.40 -2.29 0
-2.39 -7.34 -2.28 0
-2.51 -7.29 -2.28 0
-2.65 -7.27 -2.29 0
-2.77 -7.21 -2.28 0
-2.89 -7.16 -2.28 0
-3.02 -7.10 -2.28 0
-3.14 -7.05 -2.28 0
-3.26 -6.99 -2.28 0
-3.36 -6.90 -2.27 0
-3.49 -6.84 -2.27 0
-3.61 -6.78 -2.27 0
-3.73 -6.73 -2.27 0
-3.83 -6.63 -2.26 0
-3.96 -6.58 -2.27 0
-4.06 -6.50 -2.26 0
-4.17 -6.42 -2.26 0
-4.30 -6.37 -2.27 0
-4.44 -6.35 -2.29 0
-4.59 -6.31 -2.30 0
-4.73 -6.28 -2.32 0
-4.86 -6.22 -2.33 0
-4.97 -6.14 -2.33 0
-5.08 -6.05 -2.33 0
-5.16 -5.94 -2.32 0
-5.27 -5.85 -2.33 0
-5.37 -5.76 -2.33 0
-5.48 -5.68 -2.33 0
-5.56 -5.56 -2.32 0
-5.40 5.99 -2.38 0
-5.29 6.08 -2.38 0
-5.20 6.20 -2.39 0
-5.10 6.29 -2.39 0
-4.99 6.38 -2.39 0
-4.88 6.47 -2.39 0
-4.76 6.56 -2.39 0
-4.65 6.65 -2.40 0
-4.52 6.70 -2.39 0
-4.41 6.79 -2.39 0
-4.30 6.88 -2.40 0
-4.19 6.97 -2.40 0
-4.06 7.03 -2.40 0
-3.95 7.13 -2.41 0
-3.82 7.19 -2.41 0
-3.69 7.25 -2.40 0
-3.56 7.31 -2.40 0
-3.46 7.41 -2.42 0
-3.33 7.47 -2.42 0
-3.20 7.53 -2.42 0
-3.07 7.59 -2.42 0
-2.94 7.65 -2.42 0
-2.81 7.71 -2.42 0
-2.66 7.72 -2.41 0
-2.53 7.78 -2.42 0
-2.40 7.84 -2.42 0
-2.27 7.90 -2.43 0
-2.12 7.92 -2.42 0
-1.99 7.98 -2.43 0
-1.85 8.00 -2.43 0
-1.71 8.02 -2.42 0
-1.56 8.05 -2.42 7
-1.43 8.11 -2.43 33
-1.29 8.13 -2.43 41
-1.15 8.15 -2.43 20
-1.00 8.17 -2.43 1
-0.86 8.19 -2.43 0
-0.72 8.21 -2.43 0
-0.57 8.18 -2.42 0
-0.43 8.20 -2.43 0
-0.29 8.22 -2.43 0
-0.14 8.24 -2.43 0
0.00 8.21 -2.43 0
0.14 8.24 -2.43 0
0.29 8.22 -2.43 0
0.43 8.20 -2.42 0
0.57 8.18 -2.42 0
0.72 8.20 -2.43 0
0.86 8.18 -2.43 0
1.00 8.15 -2.43 0
1.14 8.13 -2.43 0
1.28 8.11 -2.42 0
1.43 8.08 -2.43 0
1.56 8.02 -2.41 0
1.70 7.99 -2.41 0
1.84 7.97 -2.42 0
1.98 7.95 -2.42 0
2.11 7.88 -2.41 0
2.26 7.86 -2.42 0
2.39 7.81 -2.41 0
2.52 7.75 -2.41 0
2.65 7.69 -2.40 0
2.79 7.68 -2.41 0
2.93 7.62 -2.41 0
3.06 7.56 -2.41 0
3.19 7.51 -2.41 0
3.32 7.45 -2.41 0
3.45 7.39 -2.41 0
3.56 7.29 -2.40 0
3.69 7.23 -2.40 0
3.81 7.17 -2.40 0
3.94 7.11 -2.40 0
4.05 7.02 -2.39 0
4.18 6.96 -2.40 0
4.29 6.87 -2.39 0
4.40 6.78 -2.39 0
4.51 6.69 -2.38 0
4.65 6.64 -2.39 0
4.76 6.55 -2.39 0
4.87 6.46 -2.39 0
4.98 6.37 -2.39 0
5.09 6.28 -2.39 0
5.20 6.19 -2.39 0
5.28 6.07 -2.38 0
5.39 5.98 -2.38 0
5.50 5.89 -2.38 0
5.60 5.80 -2.38 0
5.68 5.68 -2.37 0
5.80 5.60 -2.38 0
5.88 5.48 -2.37 0
5.96 5.37 -2.37 0
6.04 5.25 -2.37 0
6.16 5.17 -2.37 0
6.24 5.05 -2.37 0
6.32 4.94 -2.37 0
6.40 4.82 -2.37 0
6.48 4.71 -2.37 2
6.56 4.59 -2.37 3
6.61 4.46 -2.35 2
6.69 4.34 -2.36 0
6.77 4.23 -2.36 0
6.85 4.11 -2.36 0
6.89 3.98 -2.35 0
6.97 3.87 -2.36 0
7.02 3.73 -2.35 0
7.07 3.60 -2.34 0
7.12 3.47 -2.34 0
7.20 3.36 -2.35 0
7.25 3.23 -2.34 0
7.30 3.10 -2.34 0
7.34 2.97 -2.34 0
7.39 2.84 -2.34 0
7.43 2.71 -2.34 59
7.44 2.56 -2.33 -96
7.49 2.43 -2.33 -85
7.53 2.30 -2.33 19
7.58 2.17 -2.33 0
7.58 2.03 -2.32 0
7.63 1.90 -2.32 0
7.65 1.77 -2.32 0
7.66 1.63 -2.31 0
7.68 1.49 -2.31 0
7.73 1.36 -2.32 0
7.74 1.23 -2.32 0
7.75 1.09 -2.31 0
7.77 0.95 -2.31 0
7.78 0.82 -2.31 0
7.79 0.68 -2.31 0
7.77 0.54 -2.30 0
7.78 0.41 -2.30 0
7.79 0.27 -2.30 0
7.81 0.14 -2.31 0
8.52 -0.00 -2.31 0
8.50 -0.15 -2.31 0
8.49 -0.30 -2.30 0
8.52 -0.45 -2.31 0
8.51 -0.60 -2.31 0
8.50 -0.74 -2.31 0
8.48 -0.89 -2.31 0
8.47 -1.04 -2.31 0
8.46 -1.19 -2.31 0
8.44 -1.34 -2.32 0
8.43 -1.49 -2.32 0
8.41 -1.64 -2.32 0
8.40 -1.79 -2.33 0
8.34 -1.92 -2.32 0
8.32 -2.07 -2.32 0
8.31 -2.23 -2.33 0
8.26 -2.37 -2.33 0
8.20 -2.51 -2.33 0
8.20 -2.66 -2.34 0
8.15 -2.81 -2.34 0
8.09 -2.95 -2.33 0
8.04 -3.09 -2.34 0
7.99 -3.23 -2.34 0
7.94 -3.37 -2.34 0
7.88 -3.51 -2.34 0
7.83 -3.65 -2.34 0
7.78 -3.79 -2.35 0
7.72 -3.94 -2.35 0
7.63 -4.06 -2.34 0
7.57 -4.20 -2.35 0
7.52 -4.34 -2.35 0
7.43 -4.46 -2.35 0
7.34 -4.59 -2.35 0
7.29 -4.73 -2.36 0
7.20 -4.86 -2.35 0
7.11 -4.98 -2.35 0
7.02 -5.10 -2.35 0
6.93 -5.22 -2.35 0
6.84 -5.34 -2.35 0
6.75 -5.46 -2.35 0
6.66 -5.59 -2.36 0
6.57 -5.71 -2.36 0
6.47 -5.83 -2.36 0
6.35 -5.92 -2.35 0
6.25 -6.04 -2.36 0
6.16 -6.16 -2.36 0
6.02 -6.24 -2.35 0
5.85 -6.28 -2.33 0
5.70 -6.33 -2.31 0
5.54 -6.38 -2.29 0
5.42 -6.46 -2.28 0
5.30 -6.54 -2.28 0
5.19 -6.64 -2.28 0
5.07 -6.73 -2.28 0
4.96 -6.83 -2.29 0
4.85 -6.92 -2.29 0
4.73 -7.02 -2.29 0
4.62 -7.11 -2.30 0
4.48 -7.16 -2.29 0
4.36 -7.26 -2.30 0
4.25 -7.35 -2.30 0
4.11 -7.42 -2.30 0
3.98 -7.48 -2.30 0
3.86 -7.58 -2.31 0
3.72 -7.64 -2.30 0
3.58 -7.69 -2.30 0
3.44 -7.73 -2.29 0
3.30 -7.78 -2.29 0
3.16 -7.83 -2.29 0
3.02 -7.88 -2.29 0
2.88 -7.92 -2.29 0
2.74 -7.97 -2.28 0
2.60 -8.02 -2.28 0
2.45 -8.03 -2.28 0
2.31 -8.07 -2.28 0
2.18 -8.12 -2.28 0
2.03 -8.14 -2.27 0
1.88 -8.16 -2.27 0
1.74 -8.21 -2.27 0
1.60 -8.23 -2.27 0
1.45 -8.24 -2.27 0
1.31 -8.26 -2.27 0
1.16 -8.28 -2.27 0
1.02 -8.30 -2.27 0
0.87 -8.31 -2.27 0
0.73 -8.33 -2.27 0
0.58 -8.35 -2.27 0
0.44 -8.37 -2.27 0
0.29 -8.35 -2.26 0
0.15 -8.36 -2.27 0
0.00 -8.38 -2.27 0
-0.15 -8.37 -2.27 0
-0.29 -8.36 -2.27 0
-0.44 -8.38 -2.27 0
-0.59 -8.37 -2.27 0
-0.73 -8.36 -2.27 0
-0.88 -8.34 -2.27 0
-1.02 -8.33 -2.28 0
-1.17 -8.32 -2.28 0
-1.32 -8.30 -2.28 0
-1.46 -8.29 -2.28 0
-1.61 -8.28 -2.29 0
-1.76 -8.26 -2.29 0
-1.90 -8.22 -2.29 0
-2.04 -8.20 -2.29 0
-2.19 -8.19 -2.30 0
-2.34 -8.15 -2.30 0
-2.48 -8.10 -2.29 0
-2.63 -8.08 -2.30 0
-2.76 -8.02 -2.30 0
-2.90 -7.96 -2.30 0
-3.03 -7.90 -2.29 0
-3.17 -7.84 -2.29 0
-3.30 -7.78 -2.29 0
-3.43 -7.71 -2.29 0
-3.57 -7.65 -2.29 0
-3.70 -7.59 -2.29 0
-3.83 -7.53 -2.29 0
-3.95 -7.42 -2.28 0
-4.08 -7.36 -2.28 0
-4.21 -7.29 -2.28 0
-4.32 -7.20 -2.28 0
-4.44 -7.10 -2.27 0
-4.58 -7.05 -2.28 0
-4.69 -6.95 -2.27 0
-4.80 -6.86 -2.27 0
-4.91 -6.76 -2.27 0
-5.02 -6.67 -2.26 0
-5.13 -6.57 -2.26 0
-5.25 -6.48 -2.26 0
-5.37 -6.40 -2.26 0
-5.52 -6.35 -2.28 0
-5.68 -6.31 -2.30 0
-5.45 6.98 -2.40 0
-5.33 7.08 -2.40 0
-5.22 7.18 -2.41 0
-5.10 7.28 -2.41 0
-4.98 7.39 -2.42 0
-4.86 7.49 -2.42 0
-4.72 7.55 -2.41 0
-4.60 7.65 -2.42 0
-4.48 7.76 -2.43 0
-4.34 7.82 -2.42 0
-4.20 7.89 -2.42 0
-4.08 8.01 -2.44 0
-3.94 8.07 -2.43 0
-3.80 8.14 -2.43 0
-3.65 8.21 -2.43 0
-3.51 8.27 -2.44 0
-3.37 8.34 -2.44 0
-3.23 8.40 -2.44 0
-3.08 8.47 -2.44 0
-2.94 8.54 -2.45 0
-2.79 8.60 -2.45 0
-2.63 8.61 -2.44 0
-2.49 8.68 -2.45 0
-2.34 8.75 -2.45 0
-2.19 8.77 -2.45 0
-2.03 8.79 -2.45 0
-1.89 8.87 -2.46 0
-1.73 8.89 -2.46 0
-1.57 8.92 -2.45 0
-1.42 8.94 -2.45 0
-1.26 8.96 -2.45 0
-1.10 8.98 -2.45 0
-0.95 9.00 -2.45 0
-0.79 9.03 -2.46 0
-0.63 9.05 -2.46 0
-0.48 9.07 -2.46 0
-0.32 9.03 -2.45 0
-0.16 9.05 -2.45 0
-0.00 9.07 -2.46 0
0.16 9.05 -2.45 0
0.32 9.02 -2.45 0
0.47 9.05 -2.46 0
0.63 9.03 -2.45 0
0.79 9.00 -2.45 0
0.94 8.98 -2.45 0
1.10 8.95 -2.44 0
1.25 8.93 -2.44 0
1.41 8.90 -2.44 0
1.57 8.88 -2.44 0
1.72 8.85 -2.44 0
1.88 8.82 -2.45 0
2.02 8.74 -2.43 0
2.17 8.72 -2.44 0
2.33 8.70 -2.44 0
2.48 8.63 -2.43 0
2.62 8.57 -2.43 0
2.78 8.56 -2.44 0
2.93 8.50 -2.44 0
3.07 8.43 -2.43 0
3.21 8.37 -2.43 0
3.36 8.31 -2.43 0
3.50 8.24 -2.43 0
3.64 8.18 -2.43 0
3.78 8.11 -2.43 0
3.93 8.05 -2.43 0
4.07 7.98 -2.43 0
4.19 7.87 -2.42 0
4.33 7.81 -2.42 0
4.47 7.74 -2.42 0
4.59 7.64 -2.42 0
4.71 7.54 -2.41 0
4.86 7.48 -2.42 0
4.98 7.38 -2.41 0
5.10 7.28 -2.41 0
5.21 7.18 -2.40 0
5.33 7.08 -2.40 0
5.45 6.98 -2.40 0
5.57 6.88 -2.40 0
5.68 6.77 -2.40 0
5.80 6.67 -2.40 0
5.92 6.58 -2.40 0
6.01 6.44 -2.39 0
6.12 6.34 -2.39 0
6.24 6.24 -2.39 0
6.33 6.12 -2.39 0
6.42 5.99 -2.38 0
6.55 5.90 -2.39 0
6.64 5.77 -2.39 0
6.73 5.65 -2.38 0
6.82 5.52 -2.38 0
6.91 5.40 -2.38 0
6.99 5.27 -2.37 0
7.08 5.15 -2.37 0
7.17 5.02 -2.37 0
7.26 4.89 -2.37 0
7.34 4.77 -2.37 3
7.39 4.62 -2.36 7
7.47 4.49 -2.36 7
7.56 4.36 -2.37 0
7.61 4.22 -2.36 0
7.66 4.08 -2.35 0
7.76 3.95 -2.36 0
7.81 3.81 -2.36 0
7.86 3.67 -2.35 0
7.91 3.52 -2.35 0
7.96 3.38 -2.35 0
8.02 3.24 -2.34 0
8.07 3.10 -2.34 0
8.11 2.95 -2.34 0
8.16 2.81 -2.34 0
8.21 2.67 -2.34 124
8.22 2.51 -2.33 -19
8.26 2.37 -2.33 -102
8.31 2.23 -2.33 6
8.32 2.08 -2.33 0
8.34 1.92 -2.32 0
8.39 1.78 -2.33 0
8.41 1.63 -2.32 0
8.42 1.48 -2.32 0
8.43 1.33 -2.31 0
8.44 1.19 -2.31 0
8.45 1.04 -2.31 0
8.47 0.89 -2.31 0
8.48 0.74 -2.31 0
8.49 0.59 -2.31 0
8.50 0.45 -2.31 0
8.47 0.30 -2.30 0
8.49 0.15 -2.30 0
9.33 -0.00 -2.30 0
9.32 -0.16 -2.30 0
9.30 -0.32 -2.30 0
9.34 -0.49 -2.31 0
9.33 -0.65 -2.31 0
9.32 -0.82 -2.31 0
9.30 -0.98 -2.31 0
9.29 -1.14 -2.31 0
9.27 -1.30 -2.31 0
9.26 -1.47 -2.32 0
9.24 -1.63 -2.32 0
9.23 -1.79 -2.32 0
9.21 -1.96 -2.33 0
9.14 -2.11 -2.32 0
9.12 -2.28 -2.32 0
9.11 -2.44 -2.33 0
9.05 -2.60 -2.33 0
9.00 -2.75 -2.32 0
9.00 -2.92 -2.34 0
8.94 -3.08 -2.34 0
8.88 -3.23 -2.34 0
8.83 -3.39 -2.34 0
8.77 -3.54 -2.34 0
8.71 -3.70 -2.34 0
8.66 -3.85 -2.34 0
8.60 -4.01 -2.34 0
8.54 -4.17 -2.35 0
8.48 -4.32 -2.35 0
8.37 -4.45 -2.34 0
8.31 -4.61 -2.35 0
8.25 -4.77 -2.35 0
8.16 -4.90 -2.35 0
8.06 -5.04 -2.35 0
8.01 -5.20 -2.36 0
7.91 -5.34 -2.36 0
7.81 -5.47 -2.36 0
7.71 -5.60 -2.35 0
7.61 -5.74 -2.35 0
7.51 -5.87 -2.36 0
7.41 -6.00 -2.36 0
7.31 -6.14 -2.36 0
7.19 -6.25 -2.35 0
7.00 -6.30 -2.33 0
6.80 -6.34 -2.30 0
6.65 -6.42 -2.28 0
6.55 -6.55 -2.29 0
6.42 -6.65 -2.28 0
6.30 -6.76 -2.28 0
6.22 -6.91 -2.30 0
6.10 -7.01 -2.30 0
5.97 -7.12 -2.30 0
5.85 -7.22 -2.30 0
5.73 -7.33 -2.30 0
5.60 -7.43 -2.30 0
5.47 -7.53 -2.30 0
5.33 -7.61 -2.29 0
5.18 -7.69 -2.29 0
5.04 -7.77 -2.29 0
4.88 -7.81 -2.27 0
4.74 -7.89 -2.27 0
4.60 -7.97 -2.27 0
4.45 -8.02 -2.27 0
4.29 -8.07 -2.26 0
4.16 -8.16 -2.26 0
4.01 -8.21 -2.26 0
3.85 -8.26 -2.25 0
3.70 -8.32 -2.25 0
3.55 -8.37 -2.25 0
3.40 -8.43 -2.24 0
3.26 -8.48 -2.24 0
3.11 -8.53 -2.24 0
2.96 -8.59 -2.24 0
2.81 -8.64 -2.24 0
2.65 -8.65 -2.23 0
2.50 -8.71 -2.24 0
2.35 -8.75 -2.24 0
2.19 -8.77 -2.23 0
2.03 -8.79 -2.23 0
1.88 -8.85 -2.23 0
1.72 -8.87 -2.23 0
1.57 -8.89 -2.23 0
1.41 -8.91 -2.23 0
1.25 -8.93 -2.23 0
1.10 -8.95 -2.23 0
0.94 -8.97 -2.23 0
0.79 -8.99 -2.23 0
0.63 -9.01 -2.23 0
0.47 -9.03 -2.23 0
0.31 -9.00 -2.22 0
0.16 -9.02 -2.23 0
0.00 -9.04 -2.23 0
-0.16 -9.02 -2.23 0
-0.31 -9.01 -2.23 0
-0.47 -9.04 -2.24 0
-0.63 -9.03 -2.24 0
-0.79 -9.02 -2.24 0
-0.95 -9.00 -2.24 0
-1.10 -8.99 -2.24 0
-1.26 -8.97 -2.24 0
-1.42 -8.96 -2.24 0
-1.58 -8.94 -2.24 0
-1.74 -8.93 -2.25 0
-1.89 -8.92 -2.25 0
-2.04 -8.86 -2.25 0
-2.20 -8.84 -2.25 0
-2.37 -8.83 -2.26 0
-2.52 -8.78 -2.26 0
-2.67 -8.73 -2.26 0
-2.84 -8.73 -2.27 0
-2.99 -8.68 -2.27 0
-3.14 -8.63 -2.27 0
-3.30 -8.59 -2.27 0
-3.45 -8.54 -2.27 0
-3.60 -8.49 -2.28 0
-3.76 -8.44 -2.28 0
-3.91 -8.39 -2.29 0
-4.07 -8.34 -2.29 0
-4.23 -8.30 -2.30 0
-4.35 -8.19 -2.29 0
-4.50 -8.12 -2.29 0
-4.65 -8.05 -2.29 0
-4.77 -7.94 -2.29 0
-4.89 -7.83 -2.28 0
-5.05 -7.78 -2.29 0
-5.17 -7.67 -2.29 0
-5.30 -7.56 -2.28 0
-5.42 -7.46 -2.28 0
-5.54 -7.35 -2.27 0
-5.66 -7.25 -2.27 0
-5.39 8.30 -2.45 0
-5.22 8.36 -2.44 0
-5.09 8.48 -2.44 0
-4.96 8.59 -2.45 0
-4.81 8.67 -2.45 0
-4.65 8.74 -2.45 0
-4.52 8.88 -2.46 0
-4.37 8.95 -2.46 0
-4.21 9.03 -2.46 0
-4.05 9.10 -2.46 0
-3.89 9.18 -2.46 0
-3.74 9.25 -2.46 0
-3.58 9.32 -2.47 0
-3.42 9.40 -2.47 0
-3.26 9.47 -2.47 0
-3.10 9.55 -2.48 0
-2.92 9.55 -2.47 0
-2.76 9.63 -2.47 0
-2.60 9.70 -2.48 0
-2.43 9.73 -2.48 0
-2.25 9.75 -2.47 0
-2.09 9.85 -2.49 0
-1.92 9.87 -2.48 0
-1.75 9.90 -2.48 0
-1.57 9.92 -2.48 0
-1.40 9.95 -2.48 0
-1.22 9.97 -2.48 0
-1.05 9.99 -2.48 0
-0.88 10.01 -2.48 0
-0.70 10.04 -2.48 0
-0.53 10.06 -2.49 0
-0.35 10.01 -2.47 0
-0.18 10.03 -2.48 0
0.00 10.05 -2.48 0
0.18 10.02 -2.48 0
0.35 10.00 -2.47 0
0.53 10.04 -2.48 0
0.70 10.01 -2.48 0
0.87 9.98 -2.47 0
1.05 9.95 -2.47 0
1.22 9.92 -2.47 0
1.39 9.90 -2.47 0
1.56 9.87 -2.47 0
1.73 9.84 -2.47 0
1.91 9.81 -2.47 0
2.08 9.78 -2.47 0
2.24 9.69 -2.46 0
2.41 9.66 -2.46 0
2.58 9.64 -2.46 0
2.74 9.57 -2.46 0
2.90 9.50 -2.45 0
3.08 9.49 -2.47 0
3.24 9.42 -2.46 0
3.40 9.35 -2.46 0
3.56 9.28 -2.45 0
3.72 9.21 -2.45 0
3.88 9.14 -2.45 0
4.04 9.07 -2.45 0
4.19 8.99 -2.45 0
4.35 8.92 -2.45 0
4.51 8.85 -2.45 0
4.64 8.72 -2.44 0
4.79 8.65 -2.44 0
4.95 8.57 -2.44 0
5.08 8.46 -2.44 0
5.21 8.35 -2.43 0
5.38 8.29 -2.44 0
5.51 8.17 -2.44 46
5.64 8.06 -2.43 18
5.78 7.95 -2.43 2
5.91 7.84 -2.42 0
6.04 7.72 -2.42 0
6.16 7.61 -2.42 0
6.29 7.50 -2.42 0
6.42 7.39 -2.42 0
6.55 7.27 -2.42 0
6.63 7.11 -2.40 0
6.76 7.00 -2.40 0
6.89 6.89 -2.41 0
6.98 6.74 -2.40 0
7.08 6.60 -2.39 0
7.22 6.50 -2.40 0
7.32 6.36 -2.40 0
7.42 6.23 -2.39 0
7.52 6.09 -2.39 0
7.61 5.95 -2.39 0
7.71 5.81 -2.38 0
7.81 5.67 -2.38 0
7.90 5.53 -2.38 0
8.00 5.39 -2.38 0
8.09 5.25 -2.38 0
8.13 5.08 -2.37 0
8.23 4.94 -2.37 0
8.32 4.81 -2.37 1
8.38 4.65 -2.37 7
8.44 4.49 -2.36 2
8.55 4.35 -2.37 0
8.60 4.20 -2.36 0
8.66 4.04 -2.36 0
8.71 3.88 -2.36 0
8.77 3.72 -2.35 0
8.82 3.56 -2.35 0
8.88 3.41 -2.35 0
8.93 3.25 -2.35 0
8.98 3.09 -2.35 0
9.04 2.94 -2.35 0
9.03 2.76 -2.33 0
9.09 2.61 -2.33 110
9.14 2.45 -2.34 -85
9.15 2.28 -2.33 13
9.16 2.12 -2.32 0
9.23 1.96 -2.33 0
9.24 1.80 -2.33 0
9.25 1.63 -2.32 0
9.26 1.47 -2.32 0
9.27 1.30 -2.31 0
9.28 1.14 -2.31 0
9.29 0.98 -2.31 0
9.30 0.81 -2.31 0
9.31 0.65 -2.31 0
9.32 0.49 -2.31 0
9.28 0.32 -2.29 0
9.30 0.16 -2.30 0
10.32 -0.00 -2.30 0
10.31 -0.18 -2.30 0
10.37 -0.36 -2.32 0
10.35 -0.54 -2.31 0
10.34 -0.72 -2.31 0
10.32 -0.90 -2.31 0
10.31 -1.08 -2.31 0
10.29 -1.26 -2.31 0
10.28 -1.44 -2.32 0
10.26 -1.62 -2.32 0
10.24 -1.81 -2.32 0
10.23 -1.99 -2.33 0
10.21 -2.17 -2.33 0
10.19 -2.35 -2.34 0
10.11 -2.52 -2.32 0
10.09 -2.70 -2.33 0
10.03 -2.88 -2.33 0
10.03 -3.07 -2.34 0
9.97 -3.24 -2.34 0
9.91 -3.41 -2.34 0
9.85 -3.58 -2.34 0
9.78 -3.76 -2.34 0
9.72 -3.93 -2.34 0
9.66 -4.10 -2.34 0
9.59 -4.27 -2.34 0
9.53 -4.44 -2.35 0
9.47 -4.62 -2.35 0
9.40 -4.79 -2.36 0
9.34 -4.97 -2.36 0
9.21 -5.10 -2.35 0
9.15 -5.28 -2.36 0
9.04 -5.43 -2.35 0
9.00 -5.62 -2.37 0
8.89 -5.77 -2.37 0
8.78 -5.92 -2.36 0
8.67 -6.07 -2.36 0
8.56 -6.22 -2.36 0
8.33 -6.28 -2.33 0
8.13 -6.35 -2.30 0
7.96 -6.45 -2.29 0
7.85 -6.59 -2.29 0
7.75 -6.74 -2.29 0
7.65 -6.89 -2.30 0
7.55 -7.04 -2.30 0
7.40 -7.14 -2.30 0
7.30 -7.30 -2.30 0
7.14 -7.40 -2.29 0
7.02 -7.53 -2.30 0
6.86 -7.62 -2.29 0
6.70 -7.71 -2.28 0
6.54 -7.80 -2.27 0
6.39 -7.89 -2.27 0
6.23 -7.97 -2.26 0
6.08 -8.06 -2.25 0
5.92 -8.15 -2.25 0
5.77 -8.24 -2.24 0
5.62 -8.33 -2.24 0
5.47 -8.42 -2.24 0
5.32 -8.51 -2.24 0
5.14 -8.56 -2.23 0
4.99 -8.65 -2.23 0
4.83 -8.71 -2.22 0
4.69 -8.82 -2.23 0
4.52 -8.88 -2.22 0
4.36 -8.94 -2.22 0
4.20 -9.00 -2.22 0
4.03 -9.06 -2.21 0
3.87 -9.12 -2.21 0
3.71 -9.18 -2.21 0
3.55 -9.24 -2.21 0
3.38 -9.30 -2.21 0
3.22 -9.35 -2.21 0
3.05 -9.40 -2.21 0
2.89 -9.45 -2.21 0
2.71 -9.45 -2.19 0
2.55 -9.50 -2.20 0
2.37 -9.52 -2.19 0
2.21 -9.59 -2.20 0
2.04 -9.61 -2.19 0
1.87 -9.63 -2.19 0
1.70 -9.65 -2.19 0
1.53 -9.67 -2.19 0
1.36 -9.69 -2.18 0
1.19 -9.71 -2.18 0
1.02 -9.73 -2.18 0
0.85 -9.75 -2.19 0
0.68 -9.78 -2.19 0
0.51 -9.80 -2.19 0
0.34 -9.82 -2.19 0
0.17 -9.78 -2.18 0
0.00 -9.80 -2.19 0
-0.17 -9.79 -2.19 0
-0.34 -9.83 -2.20 0
-0.51 -9.82 -2.19 0
-0.69 -9.80 -2.19 0
-0.86 -9.79 -2.19 0
-1.03 -9.77 -2.19 0
-1.20 -9.76 -2.19 0
-1.37 -9.74 -2.20 0
-1.54 -9.73 -2.20 0
-1.71 -9.71 -2.20 0
-1.89 -9.70 -2.21 0
-2.06 -9.68 -2.21 0
-2.23 -9.67 -2.21 0
-2.39 -9.60 -2.21 0
-2.57 -9.58 -2.21 0
-2.73 -9.54 -2.21 0
-2.92 -9.54 -2.23 0
-3.08 -9.49 -2.23 0
-3.25 -9.44 -2.23 0
-3.42 -9.39 -2.23 0
-3.58 -9.34 -2.23 0
-3.75 -9.28 -2.24 0
-3.92 -9.23 -2.24 0
-4.09 -9.18 -2.24 0
-4.26 -9.13 -2.25 0
-4.43 -9.08 -2.25 0
-4.60 -9.02 -2.26 0
-4.77 -8.97 -2.27 0
-4.91 -8.87 -2.26 0
-5.09 -8.81 -2.27 0
-5.24 -8.73 -2.27 0
-5.43 -8.68 -2.29 0
-5.58 -8.60 -2.29 0
-5.39 9.72 -2.48 0
-5.25 9.88 -2.50 0
-5.08 9.96 -2.50 0
-4.90 10.05 -2.50 0
-4.72 10.13 -2.50 0
-4.55 10.22 -2.50 0
-4.37 10.30 -2.50 0
-4.20 10.38 -2.50 0
-4.02 10.47 -2.50 0
-3.84 10.55 -2.51 0
-3.66 10.64 -2.51 0
-3.48 10.72 -2.52 0
-3.30 10.81 -2.52 0
-3.10 10.80 -2.51 0
-2.92 10.89 -2.52 0
-2.72 10.92 -2.51 0
-2.55 11.03 -2.53 0
-2.35 11.06 -2.52 0
-2.15 11.08 -2.52 0
-1.96 11.11 -2.52 0
-1.76 11.14 -2.52 0
-1.57 11.16 -2.52 0
-1.37 11.19 -2.52 0
-1.18 11.21 -2.52 0
-0.98 11.24 -2.52 0
-0.79 11.26 -2.52 0
-0.59 11.29 -2.52 0
-0.39 11.31 -2.53 0
-0.20 11.25 -2.51 0
0.00 11.27 -2.52 0
0.20 11.24 -2.51 0
0.39 11.30 -2.52 0
0.59 11.26 -2.52 0
0.79 11.23 -2.51 0
0.98 11.20 -2.51 0
1.17 11.16 -2.51 0
1.37 11.13 -2.50 0
1.56 11.10 -2.50 0
1.75 11.07 -2.50 0
1.95 11.03 -2.50 0
2.14 11.00 -2.50 0
2.33 10.97 -2.50 0
2.53 10.95 -2.51 0
2.70 10.84 -2.49 0
2.90 10.81 -2.50 0
3.08 10.73 -2.49 0
3.28 10.73 -2.51 0
3.46 10.65 -2.50 0
3.64 10.57 -2.50 0
3.82 10.49 -2.49 0
4.00 10.41 -2.49 0
4.17 10.33 -2.49 0
4.35 10.25 -2.49 0
4.53 10.17 -2.48 0
4.70 10.09 -2.48 0
4.88 10.01 -2.49 0
5.06 9.92 -2.49 0
5.23 9.84 -2.49 0
5.37 9.69 -2.47 0
5.54 9.60 -2.48 0
5.69 9.47 -2.47 0
5.89 9.42 -2.48 0
6.03 9.29 -2.47 0
6.18 9.16 -2.47 0
6.32 9.03 -2.46 0
6.47 8.91 -2.46 0
6.61 8.78 -2.45 0
6.76 8.65 -2.45 0
6.90 8.52 -2.45 0
7.05 8.40 -2.45 0
7.19 8.27 -2.45 0
7.33 8.14 -2.45 0
7.47 8.02 -2.45 0
7.56 7.83 -2.43 0
7.70 7.70 -2.43 0
7.80 7.54 -2.42 0
7.97 7.43 -2.43 0
8.07 7.27 -2.42 0
8.17 7.10 -2.42 0
8.27 6.94 -2.41 0
8.37 6.78 -2.41 0
8.48 6.62 -2.40 0
8.59 6.47 -2.40 0
8.69 6.32 -2.40 0
8.80 6.16 -2.40 0
8.90 6.01 -2.40 0
9.01 5.85 -2.40 0
9.11 5.70 -2.40 0
9.15 5.50 -2.38 0
9.26 5.34 -2.39 0
9.32 5.17 -2.38 0
9.45 5.02 -2.39 0
9.51 4.85 -2.38 0
9.57 4.67 -2.38 9
9.63 4.49 -2.37 17
9.69 4.31 -2.37 0
9.75 4.14 -2.36 0
9.80 3.96 -2.36 0
9.86 3.79 -2.36 0
9.92 3.61 -2.36 0
9.98 3.43 -2.35 0
10.03 3.26 -2.35 0
10.09 3.08 -2.35 0
10.08 2.89 -2.34 0
10.13 2.71 -2.34 61
10.14 2.53 -2.33 -85
10.22 2.36 -2.34 74
10.23 2.17 -2.33 0
10.24 1.99 -2.33 0
10.25 1.81 -2.32 0
10.26 1.63 -2.32 0
10.27 1.44 -2.32 0
10.28 1.26 -2.31 0
10.29 1.08 -2.31 0
10.30 0.90 -2.31 0
10.31 0.72 -2.31 0
10.32 0.54 -2.31 0
10.33 0.36 -2.31 0
10.28 0.18 -2.29 0
11.52 -0.00 -2.30 0
11.52 -0.20 -2.30 0
11.51 -0.40 -2.30 0
11.58 -0.61 -2.32 0
11.57 -0.81 -2.32 0
11.57 -1.01 -2.32 0
11.56 -1.21 -2.32 0
11.54 -1.42 -2.32 0
11.53 -1.62 -2.32 0
11.51 -1.82 -2.33 0
11.49 -2.03 -2.33 0
11.48 -2.23 -2.33 0
11.46 -2.44 -2.34 0
11.35 -2.62 -2.33 0
11.33 -2.83 -2.33 0
11.32 -3.03 -2.34 0
11.25 -3.23 -2.34 0
11.18 -3.42 -2.33 0
11.20 -3.64 -2.35 0
11.13 -3.83 -2.35 0
11.06 -4.02 -2.35 0
10.99 -4.22 -2.35 0
10.92 -4.41 -2.35 0
10.85 -4.60 -2.35 0
10.78 -4.80 -2.36 0
10.70 -4.99 -2.36 0
10.63 -5.19 -2.36 0
10.56 -5.38 -2.37 0
10.41 -5.53 -2.35 0
10.33 -5.73 -2.36 0
10.26 -5.92 -2.37 0
10.14 -6.09 -2.36 0
9.98 -6.24 -2.35 0
9.74 -6.32 -2.32 0
9.54 -6.43 -2.30 0
9.41 -6.59 -2.29 0
9.31 -6.76 -2.30 0
9.20 -6.93 -2.30 0
9.09 -7.10 -2.30 0
8.96 -7.25 -2.30 0
8.80 -7.39 -2.29 0
8.65 -7.52 -2.29 0
8.49 -7.64 -2.28 0
8.29 -7.73 -2.26 0
8.13 -7.85 -2.26 0
7.98 -7.98 -2.25 0
7.80 -8.08 -2.24 0
7.62 -8.18 -2.23 0
7.50 -8.32 -2.24 0
7.33 -8.43 -2.23 0
7.16 -8.54 -2.22 0
7.00 -8.64 -2.22 0
6.83 -8.74 -2.22 0
6.67 -8.85 -2.21 0
6.50 -8.95 -2.21 0
6.34 -9.05 -2.21 0
6.17 -9.15 -2.20 0
6.01 -9.25 -2.20 0
5.81 -9.30 -2.19 0
5.65 -9.40 -2.19 0
5.48 -9.50 -2.19 0
5.30 -9.56 -2.18 0
5.12 -9.63 -2.18 0
4.97 -9.76 -2.19 0
4.79 -9.82 -2.18 0
4.61 -9.89 -2.18 0
4.43 -9.95 -2.17 0
4.25 -10.01 -2.17 0
4.07 -10.07 -2.17 0
3.89 -10.12 -2.17 0
3.70 -10.18 -2.16 0
3.52 -10.24 -2.16 0
3.34 -10.29 -2.16 0
3.14 -10.28 -2.15 0
2.96 -10.34 -2.15 0
2.78 -10.39 -2.15 0
2.60 -10.41 -2.14 0
2.41 -10.43 -2.14 0
2.23 -10.51 -2.15 0
2.05 -10.53 -2.14 0
1.86 -10.55 -2.14 0
1.67 -10.57 -2.14 0
1.49 -10.60 -2.14 0
1.25 -10.20 -2.05 53
1.07 -10.17 -2.04 51
0.93 -10.67 -2.14 0
0.75 -10.69 -2.14 0
0.56 -10.71 -2.14 0
0.37 -10.67 -2.13 0
0.19 -10.69 -2.14 0
0.00 -10.71 -2.14 0
-0.19 -10.70 -2.14 0
-0.37 -10.69 -2.13 0
-0.56 -10.73 -2.15 0
-0.75 -10.72 -2.15 0
-0.94 -10.71 -2.15 0
-1.12 -10.69 -2.15 0
-1.31 -10.68 -2.15 0
-1.50 -10.66 -2.15 0
-1.69 -10.64 -2.15 0
-1.87 -10.63 -2.15 0
-2.06 -10.61 -2.16 0
-2.25 -10.59 -2.16 0
-2.43 -10.51 -2.15 0
-2.62 -10.49 -2.16 0
-2.81 -10.47 -2.16 0
-2.99 -10.41 -2.16 0
-3.17 -10.36 -2.16 0
-3.37 -10.36 -2.18 0
-3.55 -10.30 -2.18 0
-3.73 -10.25 -2.18 0
-3.91 -10.19 -2.18 0
-4.10 -10.14 -2.18 0
-4.28 -10.08 -2.19 0
-4.46 -10.02 -2.19 0
-4.65 -9.96 -2.19 0
-4.83 -9.90 -2.20 0
-5.02 -9.85 -2.21 0
-5.17 -9.73 -2.20 0
-5.36 -9.67 -2.21 0
-5.55 -9.61 -2.22 0
-5.72 -9.52 -2.22 0
-5.38 11.55 -2.54 0
-5.18 11.64 -2.54 0
-4.98 11.74 -2.55 0
-4.78 11.84 -2.55 0
-4.58 11.93 -2.55 0
-4.38 12.03 -2.56 0
-4.18 12.13 -2.56 0
-3.97 12.22 -2.57 0
-3.73 12.21 -2.55 0
-3.53 12.30 -2.56 0
-3.32 12.40 -2.56 0
-3.10 12.43 -2.56 0
-2.88 12.46 -2.55 0
-2.68 12.60 -2.57 0
-2.45 12.63 -2.57 0
-2.23 12.66 -2.57 0
-2.01 12.69 -2.56 0
-1.79 12.72 -2.56 0
-1.57 12.75 -2.56 0
-1.34 12.77 -2.56 0
-1.12 12.80 -2.57 0
-0.90 12.83 -2.57 0
-0.67 12.86 -2.57 0
-0.45 12.77 -2.55 0
-0.22 12.80 -2.56 0
0.00 12.83 -2.56 0
0.22 12.79 -2.55 0
0.45 12.75 -2.55 0
0.67 12.83 -2.56 0
0.89 12.79 -2.56 0
1.12 12.75 -2.56 0
1.34 12.71 -2.55 0
1.56 12.67 -2.55 0
1.78 12.64 -2.55 0
2.00 12.60 -2.55 0
2.21 12.56 -2.55 0
2.44 12.53 -2.55 0
2.66 12.50 -2.55 0
2.85 12.36 -2.53 0
3.07 12.33 -2.54 0
3.29 12.30 -2.54 0
3.50 12.20 -2.53 0
3.70 12.10 -2.53 0
3.93 12.11 -2.54 0
4.14 12.01 -2.54 0
4.34 11.91 -2.53 0
4.54 11.82 -2.53 0
4.74 11.72 -2.52 0
4.94 11.63 -2.52 0
5.13 11.53 -2.52 0
5.33 11.43 -2.52 0
5.53 11.34 -2.52 0
5.73 11.24 -2.52 0
5.88 11.05 -2.50 0
6.07 10.95 -2.50 0
6.27 10.86 -2.50 0
6.43 10.71 -2.49 0
6.60 10.56 -2.49 0
6.82 10.50 -2.50 0
6.98 10.35 -2.49 0
7.15 10.21 -2.49 0
7.31 10.06 -2.48 0
7.47 9.92 -2.48 0
7.64 9.77 -2.48 0
7.80 9.63 -2.47 0
7.96 9.48 -2.47 0
8.12 9.34 -2.47 0
8.28 9.19 -2.47 0
8.37 8.98 -2.45 0
8.53 8.83 -2.45 0
8.69 8.69 -2.45 0
8.80 8.50 -2.44 0
8.92 8.32 -2.44 0
9.11 8.20 -2.45 0
9.23 8.02 -2.44 0
9.34 7.84 -2.44 0
9.46 7.66 -2.43 0
9.57 7.48 -2.43 0
9.69 7.30 -2.42 0
9.80 7.12 -2.42 0
9.92 6.94 -2.42 0
10.03 6.77 -2.42 0
10.14 6.59 -2.41 0
10.18 6.36 -2.40 0
10.29 6.18 -2.40 0
10.40 6.01 -2.40 0
10.47 5.80 -2.39 0
10.53 5.60 -2.38 0
10.68 5.44 -2.39 0
10.75 5.24 -2.39 0
10.81 5.04 -2.38 0
10.88 4.84 -2.38 0
10.94 4.64 -2.37 8
11.00 4.45 -2.37 4
11.07 4.25 -2.37 0
11.13 4.05 -2.36 0
11.19 3.85 -2.36 0
11.25 3.66 -2.36 0
11.23 3.43 -2.34 0
11.29 3.24 -2.34 0
11.35 3.04 -2.35 0
11.36 2.83 -2.34 0
11.37 2.62 -2.33 -126
11.46 2.44 -2.34 -52
11.47 2.23 -2.33 5
11.48 2.02 -2.33 0
11.49 1.82 -2.32 0
11.50 1.62 -2.32 0
11.51 1.41 -2.32 0
11.52 1.21 -2.31 0
11.53 1.01 -2.31 0
11.54 0.81 -2.31 0
11.55 0.61 -2.31 0
11.47 0.40 -2.29 0
11.48 0.20 -2.29 0
13.05 -0.00 -2.30 0
13.05 -0.23 -2.30 0
13.04 -0.46 -2.30 0
13.03 -0.68 -2.30 0
13.02 -0.91 -2.30 0
13.13 -1.15 -2.32 0
13.12 -1.38 -2.33 0
13.11 -1.61 -2.33 0
13.10 -1.84 -2.33 0
13.09 -2.07 -2.34 51
13.08 -2.31 -2.34 64
12.95 -2.52 -2.33 0
12.94 -2.75 -2.33 0
12.92 -2.98 -2.34 0
12.90 -3.22 -2.34 0
12.88 -3.45 -2.35 0
12.81 -3.67 -2.35 0
12.73 -3.89 -2.35 0
12.65 -4.11 -2.35 0
12.57 -4.33 -2.34 0
12.61 -4.59 -2.37 0
12.53 -4.81 -2.37 0
12.45 -5.03 -2.37 0
12.37 -5.25 -2.37 0
12.29 -5.47 -2.37 0
12.21 -5.69 -2.38 0
12.02 -5.86 -2.36 0
11.94 -6.09 -2.36 0
11.78 -6.26 -2.35 0
11.46 -6.35 -2.31 0
11.30 -6.52 -2.30 0
11.18 -6.72 -2.30 0
11.06 -6.91 -2.30 0
10.91 -7.09 -2.29 0
10.73 -7.24 -2.28 0
10.62 -7.43 -2.29 0
10.44 -7.58 -2.27 0
10.25 -7.73 -2.26 0
10.08 -7.87 -2.26 0
9.90 -8.02 -2.25 0
9.72 -8.16 -2.24 0
9.48 -8.24 -2.22 0
9.32 -8.39 -2.21 0
9.16 -8.54 -2.21 0
9.00 -8.69 -2.21 0
8.84 -8.84 -2.20 0
8.65 -8.96 -2.20 0
8.46 -9.08 -2.19 0
8.28 -9.19 -2.18 0
8.09 -9.31 -2.17 0
7.96 -9.49 -2.18 0
7.78 -9.60 -2.18 0
7.59 -9.71 -2.17 0
7.41 -9.83 -2.17 0
7.22 -9.94 -2.17 0
7.04 -10.05 -2.16 0
6.81 -10.09 -2.15 0
6.63 -10.20 -2.15 0
6.44 -10.31 -2.14 0
6.26 -10.42 -2.14 0
6.08 -10.53 -2.14 0
5.88 -10.60 -2.14 0
5.68 -10.68 -2.13 0
5.47 -10.74 -2.13 0
5.27 -10.81 -2.12 0
5.10 -10.94 -2.13 0
4.90 -11.00 -2.12 0
4.70 -11.06 -2.12 0
4.50 -11.13 -2.12 0
4.29 -11.19 -2.11 0
4.09 -11.25 -2.11 0
3.87 -11.23 -2.09 0
3.67 -11.29 -2.09 0
3.47 -11.35 -2.09 0
3.27 -11.41 -2.09 0
3.07 -11.47 -2.09 0
2.86 -11.49 -2.09 0
2.66 -11.51 -2.08 0
2.45 -11.53 -2.08 0
2.24 -11.55 -2.07 0
2.05 -11.64 -2.08 0
1.85 -11.66 -2.08 0
1.64 -11.69 -2.08 0
1.25 -10.15 -1.80 53
1.07 -10.21 -1.81 47
1.03 -11.76 -2.08 0
0.82 -11.71 -2.07 0
0.62 -11.74 -2.07 0
0.41 -11.76 -2.07 0
0.21 -11.78 -2.08 0
0.00 -11.81 -2.08 0
-0.21 -11.79 -2.08 0
-0.41 -11.77 -2.08 0
-0.62 -11.75 -2.07 0
-0.82 -11.73 -2.07 0
-1.03 -11.78 -2.08 0
-1.24 -11.76 -2.08 0
-1.44 -11.74 -2.09 0
-1.65 -11.71 -2.09 0
-1.85 -11.69 -2.09 0
-2.06 -11.67 -2.09 0
-2.25 -11.58 -2.08 0
-2.46 -11.55 -2.08 0
-2.66 -11.53 -2.09 0
-2.87 -11.51 -2.09 0
-3.08 -11.49 -2.10 0
-3.28 -11.43 -2.10 0
-3.48 -11.37 -2.10 0
-3.67 -11.31 -2.10 0
-3.87 -11.25 -2.10 0
-4.10 -11.26 -2.11 0
-3.98 -10.38 -1.96 50
-4.50 -11.14 -2.12 0
-4.70 -11.08 -2.12 0
-4.90 -11.02 -2.13 0
-5.11 -10.95 -2.13 0
-5.28 -10.82 -2.12 0
-5.48 -10.76 -2.13 0
-5.69 -10.70 -2.14 0
-5.15 13.43 -2.54 0
-4.89 13.45 -2.52 0
-4.63 13.44 -2.51 0
-4.37 13.46 -2.50 0
-4.13 13.50 -2.49 0
-3.89 13.56 -2.49 0
-3.65 13.64 -2.49 0
-3.41 13.66 -2.48 0
-3.16 13.69 -2.48 0
-2.92 13.72 -2.47 0
-2.67 13.75 -2.47 0
-2.45 13.90 -2.49 0
-2.21 13.93 -2.49 0
-1.96 13.95 -2.48 0
-1.72 13.98 -2.48 0
-1.47 14.01 -2.48 0
-1.23 14.03 -2.48 0
-0.97 13.94 -2.46 0
-0.73 13.96 -2.47 0
-0.49 13.99 -2.47 0
-0.24 14.02 -2.47 0
0.00 14.04 -2.48 0
0.24 14.00 -2.47 0
0.49 13.94 -2.46 0
0.73 13.88 -2.45 0
0.97 13.85 -2.45 0
1.22 13.92 -2.46 0
1.46 13.89 -2.46 0
1.70 13.86 -2.46 0
1.94 13.83 -2.46 0
2.19 13.80 -2.46 0
2.43 13.77 -2.46 0
2.65 13.64 -2.45 0
2.89 13.61 -2.45 0
3.13 13.57 -2.46 0
3.38 13.54 -2.46 0
3.62 13.51 -2.47 0
3.85 13.43 -2.46 0
4.09 13.38 -2.47 0
4.34 13.35 -2.48 0
4.59 13.33 -2.49 0
4.85 13.33 -2.50 0
5.11 13.30 -2.51 0
5.36 13.28 -2.53 0
5.62 13.24 -2.54 0
5.88 13.20 -2.55 0
6.12 13.13 -2.55 0
6.29 12.89 -2.53 0
6.51 12.78 -2.53 0
6.74 12.67 -2.53 0
6.96 12.56 -2.53 0
7.18 12.44 -2.53 0
7.37 12.27 -2.52 0
7.56 12.10 -2.52 0
7.75 11.93 -2.51 0
7.93 11.76 -2.50 0
8.19 11.70 -2.52 0
8.38 11.53 -2.51 0
8.56 11.36 -2.51 0
8.75 11.20 -2.51 0
8.93 11.03 -2.50 0
9.11 10.86 -2.50 0
9.21 10.59 -2.47 0
9.39 10.43 -2.47 0
9.57 10.26 -2.47 0
9.75 10.10 -2.47 0
9.93 9.93 -2.48 0
10.06 9.72 -2.47 0
10.19 9.51 -2.46 0
10.33 9.30 -2.45 0
10.46 9.09 -2.44 0
10.68 8.96 -2.46 0
10.81 8.76 -2.45 0
10.94 8.55 -2.45 0
11.07 8.34 -2.44 0
11.20 8.14 -2.44 2
11.33 7.93 -2.44 3
11.35 7.66 -2.41 0
11.48 7.45 -2.41 0
11.60 7.25 -2.41 0
11.73 7.05 -2.41 0
11.85 6.84 -2.41 0
11.92 6.61 -2.40 0
12.00 6.38 -2.40 0
12.07 6.15 -2.39 0
12.14 5.92 -2.38 0
12.32 5.74 -2.40 0
12.39 5.52 -2.39 0
12.46 5.29 -2.39 0
12.53 5.06 -2.38 0
12.60 4.84 -2.38 0
12.67 4.61 -2.38 9
12.63 4.35 -2.35 0
12.69 4.12 -2.35 0
12.76 3.90 -2.35 0
12.83 3.68 -2.35 0
12.89 3.45 -2.35 0
12.90 3.22 -2.34 0
12.91 2.98 -2.34 0
12.92 2.75 -2.33 23
12.93 2.51 -2.32 -99
13.05 2.30 -2.34 14
13.06 2.07 -2.33 0
13.07 1.84 -2.33 0
13.08 1.61 -2.32 0
13.08 1.37 -2.32 0
13.09 1.15 -2.32 0
12.98 0.91 -2.29 0
12.99 0.68 -2.29 0
13.00 0.45 -2.29 0
13.00 0.23 -2.29 0
14.90 -0.00 -2.28 0
15.05 -0.26 -2.31 0
15.04 -0.53 -2.31 0
15.03 -0.79 -2.31 0
15.03 -1.05 -2.31 0
15.02 -1.31 -2.31 0
15.01 -1.58 -2.31 0
15.01 -1.84 -2.32 0
15.00 -2.11 -2.32 85
14.99 -2.37 -2.32 16
14.98 -2.64 -2.33 0
14.97 -2.91 -2.34 52
14.97 -3.18 -2.34 54
14.96 -3.45 -2.35 0
14.95 -3.73 -2.36 0
14.79 -3.96 -2.35 0
14.86 -4.26 -2.37 0
14.78 -4.52 -2.37 0
14.69 -4.77 -2.37 0
14.60 -5.03 -2.37 0
14.51 -5.28 -2.37 0
14.42 -5.54 -2.37 0
14.34 -5.79 -2.37 0
14.24 -6.05 -2.37 0
14.06 -6.26 -2.36 0
13.65 -6.37 -2.31 0
13.49 -6.58 -2.30 0
13.42 -6.84 -2.31 0
13.25 -7.04 -2.30 0
13.07 -7.24 -2.29 0
12.78 -7.38 -2.26 0
12.66 -7.60 -2.26 0
12.44 -7.77 -2.25 0
12.22 -7.94 -2.23 0
12.01 -8.10 -2.22 0
11.80 -8.26 -2.21 0
11.62 -8.44 -2.20 0
11.44 -8.62 -2.19 0
11.26 -8.80 -2.19 0
11.08 -8.98 -2.18 0
10.90 -9.15 -2.18 0
10.72 -9.32 -2.18 0
10.53 -9.48 -2.17 0
10.34 -9.65 -2.17 0
10.16 -9.81 -2.16 0
9.88 -9.88 -2.14 0
9.74 -10.09 -2.15 0
9.53 -10.21 -2.14 0
9.31 -10.34 -2.13 0
9.10 -10.47 -2.12 0
8.89 -10.59 -2.12 0
8.34 -10.30 -2.03 51
8.47 -10.84 -2.11 0
8.27 -10.97 -2.10 0
8.06 -11.09 -2.10 0
7.85 -11.21 -2.10 0
7.65 -11.33 -2.09 0
7.44 -11.46 -2.09 0
7.23 -11.58 -2.09 0
7.03 -11.70 -2.09 0
6.76 -11.72 -2.07 0
6.58 -11.88 -2.08 0
6.35 -11.94 -2.07 0
6.12 -12.01 -2.06 0
5.89 -12.08 -2.06 0
5.66 -12.14 -2.05 0
5.44 -12.21 -2.05 0
5.21 -12.28 -2.04 0
4.99 -12.34 -2.04 0
4.76 -12.41 -2.04 0
4.54 -12.47 -2.03 0
4.32 -12.54 -2.03 0
4.09 -12.60 -2.03 0
3.87 -12.66 -2.03 0
3.65 -12.73 -2.03 0
3.40 -12.69 -2.01 0
3.19 -12.81 -2.02 0
2.96 -12.83 -2.02 0
2.73 -12.85 -2.01 0
2.50 -12.87 -2.01 0
2.27 -12.90 -2.01 0
2.04 -12.90 -2.00 0
1.81 -12.90 -2.00 0
1.24 -10.12 -1.56 55
1.08 -10.24 -1.58 44
1.13 -12.90 -1.98 0
0.90 -12.90 -1.98 0
0.68 -12.90 -1.98 0
0.45 -12.90 -1.98 0
0.23 -12.90 -1.98 0
0.00 -12.86 -1.97 0
-0.22 -12.88 -1.97 0
-0.45 -12.86 -1.97 0
-0.67 -12.85 -1.97 0
-0.90 -12.83 -1.97 0
-1.12 -12.81 -1.97 0
-1.34 -12.80 -1.97 0
-1.57 -12.78 -1.97 0
-1.79 -12.76 -1.97 0
-2.02 -12.74 -1.98 0
-2.24 -12.72 -1.98 0
-2.47 -12.71 -1.98 0
-2.70 -12.69 -1.99 0
-2.93 -12.67 -1.99 0
-3.15 -12.65 -2.00 0
-3.38 -12.60 -2.00 0
-3.61 -12.60 -2.01 0
-3.84 -12.57 -2.01 0
-4.07 -12.53 -2.02 0
-4.29 -12.47 -2.02 0
-4.52 -12.41 -2.02 0
-3.97 -10.34 -1.70 55
-4.96 -12.28 -2.03 0
-5.18 -12.21 -2.03 0
-3.66 -8.23 -1.38 6
-5.63 -12.08 -2.04 0
-5.86 -12.02 -2.05 0
-5.15 15.86 -2.55 0
-4.88 15.96 -2.56 0
-4.60 16.05 -2.56 0
-4.27 15.94 -2.53 0
-4.03 16.15 -2.55 0
-3.73 16.15 -2.54 0
-3.43 16.15 -2.53 0
-3.14 16.16 -2.52 0
-2.85 16.16 -2.51 0
-2.56 16.16 -2.51 0
-2.27 16.16 -2.50 0
-1.98 16.17 -2.49 0
-1.70 16.17 -2.49 0
-1.41 16.17 -2.49 0
-1.13 16.17 -2.48 0
-0.85 16.17 -2.48 0
-0.56 16.17 -2.48 0
-0.28 16.20 -2.48 0
-0.00 16.06 -2.46 0
0.28 16.18 -2.48 0
0.56 16.10 -2.47 0
0.84 16.03 -2.46 0
1.12 15.95 -2.45 0
1.39 15.88 -2.44 0
1.66 15.80 -2.43 0
1.93 15.73 -2.43 0
2.20 15.66 -2.42 0
2.47 15.59 -2.42 0
2.74 15.51 -2.41 0
3.00 15.44 -2.41 0
3.27 15.37 -2.41 0
3.53 15.29 -2.40 0
3.80 15.23 -2.40 0
4.04 15.07 -2.39 0
4.33 15.11 -2.41 0
4.59 15.02 -2.41 0
4.85 14.93 -2.40 0
5.11 14.84 -2.40 0
5.37 14.75 -2.40 0
5.63 14.66 -2.40 0
5.89 14.57 -2.41 0
6.14 14.48 -2.41 0
6.40 14.38 -2.41 0
6.67 14.29 -2.42 0
6.93 14.20 -2.42 0
7.19 14.11 -2.43 0
7.45 14.02 -2.43 0
7.72 13.92 -2.44 0
7.92 13.72 -2.43 0
8.22 13.69 -2.45 0
8.46 13.54 -2.45 0
8.70 13.40 -2.45 0
8.98 13.32 -2.46 0
9.29 13.27 -2.48 0
9.60 13.22 -2.50 0
9.91 13.16 -2.52 0
10.13 12.96 -2.52 0
10.34 12.77 -2.52 0
10.55 12.57 -2.51 0
10.76 12.38 -2.51 0
10.97 12.18 -2.51 0
11.18 11.98 -2.51 0
11.38 11.79 -2.51 0
11.47 11.47 -2.48 0
11.74 11.34 -2.50 0
11.90 11.09 -2.49 0
12.04 10.85 -2.48 0
12.19 10.60 -2.47 0
12.34 10.36 -2.47 0
12.49 10.11 -2.46 0
12.63 9.87 -2.46 0
12.78 9.63 -2.45 0
12.93 9.39 -2.45 0
13.07 9.15 -2.44 0
13.21 8.91 -2.44 0
13.35 8.67 -2.44 0
13.50 8.43 -2.44 0
13.64 8.20 -2.44 0
13.63 7.87 -2.41 0
13.86 7.68 -2.43 0
13.93 7.41 -2.42 0
14.01 7.14 -2.41 0
14.09 6.87 -2.40 0
14.16 6.60 -2.39 0
14.24 6.34 -2.39 0
14.32 6.08 -2.38 0
14.40 5.82 -2.38 0
14.47 5.55 -2.37 0
14.55 5.29 -2.37 0
14.62 5.03 -2.37 0
14.70 4.78 -2.37 1
14.77 4.52 -2.37 7
14.85 4.26 -2.37 0
14.77 3.96 -2.34 0
14.93 3.72 -2.36 0
14.93 3.45 -2.35 0
14.94 3.18 -2.34 0
14.95 2.91 -2.33 0
14.95 2.64 -2.33 99
14.96 2.37 -2.32 67
14.97 2.10 -2.32 0
14.98 1.84 -2.31 0
14.98 1.57 -2.31 0
14.98 1.31 -2.30 0
14.99 1.05 -2.30 0
14.99 0.79 -2.30 0
15.00 0.52 -2.30 0
15.00 0.26 -2.30 0
17.57 -0.00 -2.29 0
17.56 -0.31 -2.29 28
17.56 -0.61 -2.29 41
17.55 -0.92 -2.29 80
17.76 -1.24 -2.32 39
17.75 -1.55 -2.32 0
17.75 -1.87 -2.32 0
17.75 -2.18 -2.33 -126
17.74 -2.49 -2.33 0
17.74 -2.81 -2.34 0
17.74 -3.13 -2.34 -35
17.73 -3.45 -2.35 47
17.52 -3.72 -2.33 36
17.52 -4.04 -2.34 0
17.51 -4.37 -2.35 0
17.51 -4.69 -2.36 0
17.43 -5.00 -2.36 0
17.35 -5.30 -2.36 0
17.27 -5.61 -2.36 0
17.39 -5.99 -2.39 0
17.14 -6.24 -2.37 0
16.62 -6.38 -2.32 0
16.46 -6.65 -2.31 0
16.24 -6.89 -2.30 0
16.01 -7.13 -2.28 0
15.78 -7.36 -2.27 0
15.55 -7.59 -2.25 0
15.19 -7.74 -2.22 0
14.97 -7.96 -2.21 0
14.76 -8.18 -2.20 0
14.57 -8.41 -2.19 0
14.35 -8.62 -2.18 0
14.13 -8.83 -2.17 0
13.91 -9.04 -2.16 0
13.84 -9.33 -2.17 0
13.62 -9.54 -2.16 0
13.41 -9.74 -2.16 0
13.19 -9.94 -2.15 0
12.98 -10.14 -2.15 0
12.77 -10.34 -2.14 0
12.56 -10.54 -2.13 0
12.34 -10.72 -2.13 0
11.41 -10.27 -2.00 61
11.78 -10.98 -2.10 0
11.56 -11.16 -2.09 0
11.34 -11.34 -2.09 0
11.08 -11.47 -2.08 0
10.83 -11.61 -2.07 0
10.57 -11.74 -2.06 0
10.42 -11.99 -2.07 0
10.17 -12.12 -2.06 0
8.35 -10.31 -1.73 63
9.68 -12.39 -2.05 0
9.43 -12.52 -2.04 0
9.19 -12.66 -2.04 0
8.96 -12.79 -2.03 0
8.72 -12.92 -2.03 0
8.40 -12.93 -2.01 0
8.15 -13.05 -2.00 0
7.91 -13.17 -2.00 0
7.65 -13.25 -1.99 0
7.36 -13.28 -1.98 0
7.07 -13.30 -1.96 0
6.79 -13.33 -1.95 0
6.54 -13.41 -1.94 0
6.27 -13.44 -1.93 0
5.99 -13.46 -1.92 0
5.73 -13.49 -1.91 0
5.46 -13.52 -1.90 0
5.20 -13.55 -1.89 0
4.94 -13.57 -1.88 0
4.68 -13.59 -1.87 0
4.41 -13.56 -1.86 0
4.15 -13.58 -1.85 0
3.90 -13.60 -1.84 0
3.64 -13.59 -1.83 0
3.39 -13.58 -1.82 0
3.13 -13.56 -1.81 0
2.88 -13.55 -1.80 0
2.64 -13.58 -1.80 0
2.39 -13.56 -1.79 0
2.15 -13.55 -1.79 0
1.90 -13.53 -1.78 0
1.24 -10.11 -1.33 63
1.42 -13.52 -1.77 0
1.18 -13.52 -1.77 0
0.95 -13.52 -1.76 0
0.71 -13.48 -1.76 0
0.47 -13.48 -1.76 0
0.24 -13.47 -1.75 0
0.00 -13.47 -1.75 0
-0.23 -13.45 -1.75 0
-0.47 -13.44 -1.75 0
-0.70 -13.42 -1.75 0
-0.94 -13.44 -1.75 0
-1.17 -13.42 -1.75 0
-1.41 -13.41 -1.75 0
-1.64 -13.39 -1.76 0
-1.88 -13.37 -1.76 0
-1.47 -9.31 -1.23 10
-2.35 -13.34 -1.76 0
-1.73 -8.92 -1.18 6
-1.90 -8.94 -1.19 10
-2.52 -10.93 -1.46 7
-2.74 -11.00 -1.48 8
-3.54 -13.21 -1.78 0
-3.78 -13.17 -1.78 0
-3.19 -10.42 -1.42 15
-3.38 -10.41 -1.43 9
-4.51 -13.11 -1.80 0
-3.78 -10.38 -1.44 55
-3.95 -10.30 -1.44 45
-3.52 -8.70 -1.22 9
-3.64 -8.58 -1.21 8
-3.75 -8.43 -1.20 14
-4.21 -8.26 -1.21 8
-4.27 -8.04 -1.18 10
-5.04 17.57 -2.38 0
-4.71 17.57 -2.37 0
-4.38 17.55 -2.35 0
-4.05 17.53 -2.34 0
-3.72 17.52 -2.33 0
-3.41 17.56 -2.33 0
-3.09 17.54 -2.32 0
-2.77 17.52 -2.31 0
-2.46 17.50 -2.30 0
-2.15 17.49 -2.29 0
-1.84 17.47 -2.29 0
-1.53 17.45 -2.28 0
-1.22 17.43 -2.28 0
-0.91 17.36 -2.26 0
-0.61 17.34 -2.26 0
-0.30 17.32 -2.26 0
0.00 17.29 -2.25 0
0.30 17.25 -2.25 0
0.60 17.21 -2.24 0
0.90 17.18 -2.24 0
1.20 17.19 -2.24 0
1.50 17.15 -2.24 0
1.80 17.11 -2.24 0
2.10 17.08 -2.24 0
2.39 17.04 -2.24 0
2.69 17.00 -2.24 0
2.99 16.96 -2.24 0
3.29 16.92 -2.24 0
3.58 16.83 -2.24 0
3.88 16.79 -2.24 0
4.18 16.75 -2.25 0
4.48 16.71 -2.25 0
4.77 16.65 -2.25 0
5.07 16.59 -2.26 0
5.37 16.53 -2.26 0
5.69 16.54 -2.28 0
6.00 16.49 -2.28 0
6.30 16.42 -2.29 0
6.61 16.36 -2.30 0
6.91 16.28 -2.30 0
7.22 16.21 -2.31 0
7.53 16.14 -2.32 0
7.83 16.05 -2.32 0
8.06 15.83 -2.31 0
8.36 15.72 -2.32 0
8.65 15.61 -2.32 0
8.95 15.50 -2.33 0
9.22 15.34 -2.33 0
9.49 15.19 -2.33 0
9.77 15.04 -2.33 0
10.11 14.99 -2.35 0
10.39 14.84 -2.36 0
10.67 14.68 -2.36 0
10.94 14.52 -2.37 0
11.22 14.36 -2.37 0
11.51 14.21 -2.38 0
11.81 14.08 -2.39 0
12.12 13.94 -2.40 0
12.33 13.70 -2.40 0
12.64 13.56 -2.41 0
12.94 13.40 -2.42 0
13.28 13.28 -2.45 0
13.67 13.20 -2.47 0
14.06 13.11 -2.50 0
14.23 12.81 -2.49 0
14.59 12.68 -2.52 0
14.76 12.38 -2.51 0
14.93 12.09 -2.50 0
15.10 11.80 -2.49 0
15.27 11.51 -2.49 0
15.44 11.22 -2.48 0
15.61 10.93 -2.48 0
15.77 10.64 -2.48 0
15.74 10.22 -2.44 0
15.90 9.94 -2.44 0
16.07 9.65 -2.44 0
16.23 9.37 -2.44 0
16.32 9.04 -2.43 0
